VERSION 0.5
FIELDS x y z i
SIZE 4 4 4 4
TYPE F F F F
COUNT 1 1 1 1
WIDTH 765
HEIGHT 1
VIEWPOINT 0.0 0.0 0.0 1.0 0.0 0.0 0.0
POINTS 765
DATA ascii
7164.0000000000 -946.0000000000 14705.0000000000 0.0000000000
-12930.0000000000 3440.0000000000 9500.0000000000 0.0000000000
-14197.0000000000 -2795.0000000000 7633.0000000000 0.0000000000
7145.0000000000 -1213.0000000000 14653.0000000000 0.0000000000
7145.0000000000 -1213.0000000000 14653.0000000000 0.0000000000
7145.0000000000 -1483.0000000000 14638.0000000000 0.0000000000
7145.0000000000 -1483.0000000000 14638.0000000000 0.0000000000
7145.0000000000 -1753.0000000000 14619.0000000000 0.0000000000
7145.0000000000 -1753.0000000000 14619.0000000000 0.0000000000
7145.0000000000 -2022.0000000000 14598.0000000000 0.0000000000
7145.0000000000 -2022.0000000000 14598.0000000000 0.0000000000
7145.0000000000 -2292.0000000000 14573.0000000000 0.0000000000
7145.0000000000 -2292.0000000000 14573.0000000000 0.0000000000
-2291.0000000000 568.0000000000 1694.0000000000 354.0000000000
1261.0000000000 -452.0000000000 2570.0000000000 97.0000000000
7126.0000000000 -2555.0000000000 14506.0000000000 0.0000000000
1278.0000000000 -506.0000000000 2599.0000000000 14.0000000000
7126.0000000000 -2824.0000000000 14475.0000000000 0.0000000000
1273.0000000000 -552.0000000000 2583.0000000000 33.0000000000
7126.0000000000 -3092.0000000000 14441.0000000000 0.0000000000
1273.0000000000 -601.0000000000 2578.0000000000 12.0000000000
7107.0000000000 -3352.0000000000 14365.0000000000 0.0000000000
1269.0000000000 -647.0000000000 2563.0000000000 11.0000000000
7088.0000000000 -3611.0000000000 14286.0000000000 0.0000000000
-12930.0000000000 3203.0000000000 9539.0000000000 0.0000000000
7088.0000000000 -3878.0000000000 14243.0000000000 0.0000000000
7088.0000000000 -3878.0000000000 14243.0000000000 0.0000000000
7069.0000000000 -4135.0000000000 14158.0000000000 0.0000000000
7069.0000000000 -4135.0000000000 14158.0000000000 0.0000000000
7316.0000000000 4123.0000000000 14037.0000000000 0.0000000000
7316.0000000000 4123.0000000000 14037.0000000000 0.0000000000
7336.0000000000 3868.0000000000 14122.0000000000 0.0000000000
7336.0000000000 3868.0000000000 14122.0000000000 0.0000000000
7355.0000000000 3611.0000000000 14203.0000000000 0.0000000000
7355.0000000000 3611.0000000000 14203.0000000000 0.0000000000
-2311.0000000000 530.0000000000 1715.0000000000 376.0000000000
7355.0000000000 3343.0000000000 14243.0000000000 0.0000000000
7355.0000000000 3343.0000000000 14243.0000000000 0.0000000000
7355.0000000000 3076.0000000000 14280.0000000000 0.0000000000
7355.0000000000 3076.0000000000 14280.0000000000 0.0000000000
7375.0000000000 2816.0000000000 14353.0000000000 0.0000000000
7375.0000000000 2816.0000000000 14353.0000000000 0.0000000000
7375.0000000000 2548.0000000000 14384.0000000000 0.0000000000
7375.0000000000 2548.0000000000 14384.0000000000 0.0000000000
7395.0000000000 2286.0000000000 14450.0000000000 0.0000000000
7395.0000000000 2286.0000000000 14450.0000000000 0.0000000000
-12930.0000000000 2966.0000000000 9575.0000000000 0.0000000000
7395.0000000000 2017.0000000000 14475.0000000000 0.0000000000
7395.0000000000 2017.0000000000 14475.0000000000 0.0000000000
1307.0000000000 309.0000000000 2566.0000000000 311.0000000000
7395.0000000000 1748.0000000000 14497.0000000000 0.0000000000
1312.0000000000 262.0000000000 2580.0000000000 68.0000000000
7395.0000000000 1479.0000000000 14515.0000000000 0.0000000000
1322.0000000000 216.0000000000 2602.0000000000 31.0000000000
7415.0000000000 1213.0000000000 14569.0000000000 0.0000000000
1322.0000000000 168.0000000000 2604.0000000000 31.0000000000
7415.0000000000 944.0000000000 14582.0000000000 0.0000000000
-2297.0000000000 485.0000000000 1711.0000000000 369.0000000000
1329.0000000000 121.0000000000 2619.0000000000 4.0000000000
7415.0000000000 674.0000000000 14591.0000000000 0.0000000000
7415.0000000000 404.0000000000 14598.0000000000 0.0000000000
7415.0000000000 404.0000000000 14598.0000000000 0.0000000000
1322.0000000000 24.0000000000 2607.0000000000 37.0000000000
7415.0000000000 135.0000000000 14601.0000000000 0.0000000000
1313.0000000000 -24.0000000000 2590.0000000000 68.0000000000
7415.0000000000 -135.0000000000 14601.0000000000 0.0000000000
7415.0000000000 -404.0000000000 14598.0000000000 0.0000000000
7415.0000000000 -404.0000000000 14598.0000000000 0.0000000000
-12969.0000000000 2737.0000000000 9637.0000000000 2.0000000000
7415.0000000000 -674.0000000000 14591.0000000000 0.0000000000
7415.0000000000 -674.0000000000 14591.0000000000 0.0000000000
7415.0000000000 -944.0000000000 14582.0000000000 0.0000000000
7415.0000000000 -944.0000000000 14582.0000000000 0.0000000000
7415.0000000000 -1213.0000000000 14569.0000000000 0.0000000000
7415.0000000000 -1213.0000000000 14569.0000000000 0.0000000000
7395.0000000000 -1479.0000000000 14515.0000000000 0.0000000000
7395.0000000000 -1479.0000000000 14515.0000000000 0.0000000000
7395.0000000000 -1748.0000000000 14497.0000000000 0.0000000000
7395.0000000000 -1748.0000000000 14497.0000000000 0.0000000000
-10323.0000000000 1989.0000000000 7697.0000000000 395.0000000000
7395.0000000000 -2017.0000000000 14475.0000000000 0.0000000000
7395.0000000000 -2017.0000000000 14475.0000000000 0.0000000000
7395.0000000000 -2286.0000000000 14450.0000000000 0.0000000000
7395.0000000000 -2286.0000000000 14450.0000000000 0.0000000000
1319.0000000000 -456.0000000000 2576.0000000000 15.0000000000
7375.0000000000 -2548.0000000000 14384.0000000000 0.0000000000
7375.0000000000 -2816.0000000000 14353.0000000000 0.0000000000
7375.0000000000 -2816.0000000000 14353.0000000000 0.0000000000
1318.0000000000 -551.0000000000 2562.0000000000 5.0000000000
7355.0000000000 -3076.0000000000 14280.0000000000 0.0000000000
-12969.0000000000 2499.0000000000 9668.0000000000 0.0000000000
7355.0000000000 -3343.0000000000 14243.0000000000 0.0000000000
7355.0000000000 -3343.0000000000 14243.0000000000 0.0000000000
1305.0000000000 -641.0000000000 2524.0000000000 67.0000000000
7355.0000000000 -3611.0000000000 14203.0000000000 0.0000000000
7336.0000000000 -3868.0000000000 14122.0000000000 0.0000000000
7336.0000000000 -3868.0000000000 14122.0000000000 0.0000000000
7316.0000000000 -4123.0000000000 14037.0000000000 0.0000000000
7316.0000000000 -4123.0000000000 14037.0000000000 0.0000000000
1352.0000000000 735.0000000000 2492.0000000000 299.0000000000
7561.0000000000 4112.0000000000 13913.0000000000 0.0000000000
-10369.0000000000 1807.0000000000 7753.0000000000 418.0000000000
1353.0000000000 688.0000000000 2502.0000000000 288.0000000000
7582.0000000000 3857.0000000000 13997.0000000000 0.0000000000
1347.0000000000 638.0000000000 2499.0000000000 257.0000000000
7582.0000000000 3591.0000000000 14040.0000000000 0.0000000000
1354.0000000000 594.0000000000 2519.0000000000 292.0000000000
7602.0000000000 3334.0000000000 14118.0000000000 0.0000000000
1357.0000000000 547.0000000000 2531.0000000000 275.0000000000
7602.0000000000 3068.0000000000 14156.0000000000 0.0000000000
1363.0000000000 502.0000000000 2549.0000000000 306.0000000000
7623.0000000000 2808.0000000000 14228.0000000000 0.0000000000
-13008.0000000000 2268.0000000000 9725.0000000000 0.0000000000
-11308.0000000000 -2404.0000000000 6053.0000000000 374.0000000000
1354.0000000000 451.0000000000 2537.0000000000 278.0000000000
7623.0000000000 2541.0000000000 14259.0000000000 0.0000000000
1356.0000000000 404.0000000000 2545.0000000000 272.0000000000
7623.0000000000 2273.0000000000 14286.0000000000 0.0000000000
1367.0000000000 360.0000000000 2570.0000000000 292.0000000000
7643.0000000000 2011.0000000000 14350.0000000000 0.0000000000
1364.0000000000 311.0000000000 2569.0000000000 284.0000000000
7643.0000000000 1743.0000000000 14371.0000000000 0.0000000000
1364.0000000000 263.0000000000 2571.0000000000 282.0000000000
7643.0000000000 1475.0000000000 14390.0000000000 0.0000000000
-2311.0000000000 360.0000000000 1736.0000000000 380.0000000000
1371.0000000000 216.0000000000 2587.0000000000 280.0000000000
7664.0000000000 1210.0000000000 14444.0000000000 0.0000000000
1367.0000000000 168.0000000000 2583.0000000000 280.0000000000
7664.0000000000 941.0000000000 14456.0000000000 0.0000000000
1371.0000000000 120.0000000000 2591.0000000000 268.0000000000
7664.0000000000 672.0000000000 14466.0000000000 0.0000000000
1368.0000000000 72.0000000000 2588.0000000000 270.0000000000
7664.0000000000 403.0000000000 14472.0000000000 0.0000000000
1366.0000000000 24.0000000000 2584.0000000000 286.0000000000
7664.0000000000 134.0000000000 14475.0000000000 0.0000000000
-13206.0000000000 2060.0000000000 9898.0000000000 0.0000000000
1369.0000000000 -24.0000000000 2589.0000000000 294.0000000000
7664.0000000000 -134.0000000000 14475.0000000000 0.0000000000
1367.0000000000 -72.0000000000 2586.0000000000 281.0000000000
7664.0000000000 -403.0000000000 14472.0000000000 0.0000000000
1371.0000000000 -120.0000000000 2591.0000000000 284.0000000000
7664.0000000000 -672.0000000000 14466.0000000000 0.0000000000
1369.0000000000 -168.0000000000 2587.0000000000 279.0000000000
7664.0000000000 -941.0000000000 14456.0000000000 0.0000000000
1371.0000000000 -216.0000000000 2587.0000000000 289.0000000000
7664.0000000000 -1210.0000000000 14444.0000000000 0.0000000000
-2320.0000000000 319.0000000000 1747.0000000000 363.0000000000
1363.0000000000 -263.0000000000 2570.0000000000 278.0000000000
7643.0000000000 -1475.0000000000 14390.0000000000 0.0000000000
1359.0000000000 -310.0000000000 2560.0000000000 269.0000000000
7643.0000000000 -1743.0000000000 14371.0000000000 0.0000000000
1367.0000000000 -360.0000000000 2570.0000000000 289.0000000000
7643.0000000000 -2011.0000000000 14350.0000000000 0.0000000000
1361.0000000000 -406.0000000000 2554.0000000000 280.0000000000
7623.0000000000 -2273.0000000000 14286.0000000000 0.0000000000
1363.0000000000 -454.0000000000 2554.0000000000 292.0000000000
7623.0000000000 -2541.0000000000 14259.0000000000 0.0000000000
-13008.0000000000 1790.0000000000 9773.0000000000 0.0000000000
1353.0000000000 -499.0000000000 2530.0000000000 238.0000000000
7623.0000000000 -2808.0000000000 14228.0000000000 0.0000000000
1357.0000000000 -548.0000000000 2531.0000000000 280.0000000000
7602.0000000000 -3068.0000000000 14156.0000000000 0.0000000000
1358.0000000000 -596.0000000000 2526.0000000000 279.0000000000
7602.0000000000 -3334.0000000000 14118.0000000000 0.0000000000
1345.0000000000 -637.0000000000 2495.0000000000 265.0000000000
7582.0000000000 -3591.0000000000 14040.0000000000 0.0000000000
1354.0000000000 -689.0000000000 2504.0000000000 275.0000000000
7582.0000000000 -3857.0000000000 13997.0000000000 0.0000000000
-2325.0000000000 277.0000000000 1754.0000000000 373.0000000000
1343.0000000000 -730.0000000000 2475.0000000000 254.0000000000
7561.0000000000 -4112.0000000000 13913.0000000000 0.0000000000
1389.0000000000 730.0000000000 2458.0000000000 378.0000000000
7805.0000000000 4101.0000000000 13787.0000000000 0.0000000000
1389.0000000000 683.0000000000 2465.0000000000 373.0000000000
7827.0000000000 3847.0000000000 13871.0000000000 0.0000000000
1392.0000000000 637.0000000000 2478.0000000000 407.0000000000
7827.0000000000 3582.0000000000 13913.0000000000 0.0000000000
1401.0000000000 593.0000000000 2501.0000000000 386.0000000000
7848.0000000000 3325.0000000000 13991.0000000000 0.0000000000
-13008.0000000000 1551.0000000000 9792.0000000000 0.0000000000
1390.0000000000 542.0000000000 2488.0000000000 380.0000000000
7848.0000000000 3059.0000000000 14028.0000000000 0.0000000000
1407.0000000000 501.0000000000 2526.0000000000 368.0000000000
7869.0000000000 2801.0000000000 14100.0000000000 0.0000000000
1404.0000000000 452.0000000000 2526.0000000000 409.0000000000
7869.0000000000 2534.0000000000 14131.0000000000 0.0000000000
1403.0000000000 404.0000000000 2529.0000000000 427.0000000000
7869.0000000000 2267.0000000000 14158.0000000000 0.0000000000
1401.0000000000 356.0000000000 2530.0000000000 353.0000000000
7890.0000000000 2006.0000000000 14221.0000000000 0.0000000000
-10381.0000000000 1048.0000000000 7828.0000000000 428.0000000000
1402.0000000000 309.0000000000 2536.0000000000 368.0000000000
7890.0000000000 1739.0000000000 14243.0000000000 0.0000000000
1396.0000000000 260.0000000000 2527.0000000000 345.0000000000
7890.0000000000 1471.0000000000 14262.0000000000 0.0000000000
1402.0000000000 214.0000000000 2541.0000000000 350.0000000000
7890.0000000000 1204.0000000000 14277.0000000000 0.0000000000
1396.0000000000 166.0000000000 2532.0000000000 377.0000000000
7890.0000000000 936.0000000000 14289.0000000000 0.0000000000
1405.0000000000 119.0000000000 2551.0000000000 344.0000000000
7911.0000000000 670.0000000000 14337.0000000000 0.0000000000
-13048.0000000000 1317.0000000000 9838.0000000000 0.0000000000
1400.0000000000 71.0000000000 2543.0000000000 345.0000000000
7911.0000000000 402.0000000000 14343.0000000000 0.0000000000
1404.0000000000 24.0000000000 2550.0000000000 365.0000000000
7911.0000000000 134.0000000000 14346.0000000000 0.0000000000
1410.0000000000 -24.0000000000 2560.0000000000 391.0000000000
7911.0000000000 -134.0000000000 14346.0000000000 0.0000000000
1400.0000000000 -71.0000000000 2543.0000000000 344.0000000000
7911.0000000000 -402.0000000000 14343.0000000000 0.0000000000
1398.0000000000 -118.0000000000 2537.0000000000 339.0000000000
7911.0000000000 -670.0000000000 14337.0000000000 0.0000000000
-10381.0000000000 857.0000000000 7840.0000000000 445.0000000000
1400.0000000000 -166.0000000000 2539.0000000000 354.0000000000
7890.0000000000 -936.0000000000 14289.0000000000 0.0000000000
1391.0000000000 -212.0000000000 2522.0000000000 323.0000000000
7890.0000000000 -1204.0000000000 14277.0000000000 0.0000000000
1395.0000000000 -260.0000000000 2525.0000000000 382.0000000000
7890.0000000000 -1471.0000000000 14262.0000000000 0.0000000000
1411.0000000000 -311.0000000000 2551.0000000000 381.0000000000
7890.0000000000 -1739.0000000000 14243.0000000000 0.0000000000
1404.0000000000 -357.0000000000 2534.0000000000 360.0000000000
7890.0000000000 -2006.0000000000 14221.0000000000 0.0000000000
-13048.0000000000 1077.0000000000 9853.0000000000 0.0000000000
-14197.0000000000 -3018.0000000000 7598.0000000000 0.0000000000
-14197.0000000000 3018.0000000000 7598.0000000000 0.0000000000
1393.0000000000 -401.0000000000 2510.0000000000 334.0000000000
7869.0000000000 -2267.0000000000 14158.0000000000 0.0000000000
1401.0000000000 -451.0000000000 2519.0000000000 385.0000000000
7869.0000000000 -2534.0000000000 14131.0000000000 0.0000000000
1394.0000000000 -496.0000000000 2503.0000000000 388.0000000000
7869.0000000000 -2801.0000000000 14100.0000000000 0.0000000000
1392.0000000000 -542.0000000000 2491.0000000000 386.0000000000
7848.0000000000 -3059.0000000000 14028.0000000000 0.0000000000
1397.0000000000 -592.0000000000 2494.0000000000 372.0000000000
7848.0000000000 -3325.0000000000 13991.0000000000 0.0000000000
-10398.0000000000 668.0000000000 7862.0000000000 390.0000000000
1381.0000000000 -632.0000000000 2458.0000000000 348.0000000000
7827.0000000000 -3582.0000000000 13913.0000000000 0.0000000000
1384.0000000000 -680.0000000000 2457.0000000000 338.0000000000
7827.0000000000 -3847.0000000000 13871.0000000000 0.0000000000
1384.0000000000 -727.0000000000 2449.0000000000 342.0000000000
7805.0000000000 -4101.0000000000 13787.0000000000 0.0000000000
1425.0000000000 724.0000000000 2422.0000000000 336.0000000000
8048.0000000000 4090.0000000000 13658.0000000000 0.0000000000
1431.0000000000 681.0000000000 2441.0000000000 378.0000000000
8048.0000000000 3826.0000000000 13704.0000000000 0.0000000000
-13227.0000000000 849.0000000000 9999.0000000000 0.0000000000
1431.0000000000 633.0000000000 2448.0000000000 348.0000000000
8070.0000000000 3572.0000000000 13784.0000000000 0.0000000000
1438.0000000000 589.0000000000 2468.0000000000 362.0000000000
8092.0000000000 3316.0000000000 13861.0000000000 0.0000000000
1436.0000000000 542.0000000000 2471.0000000000 347.0000000000
8092.0000000000 3051.0000000000 13898.0000000000 0.0000000000
1441.0000000000 496.0000000000 2485.0000000000 360.0000000000
8114.0000000000 2793.0000000000 13970.0000000000 0.0000000000
1451.0000000000 452.0000000000 2508.0000000000 338.0000000000
8114.0000000000 2527.0000000000 14000.0000000000 0.0000000000
-10377.0000000000 476.0000000000 7852.0000000000 419.0000000000
1440.0000000000 401.0000000000 2493.0000000000 344.0000000000
8114.0000000000 2261.0000000000 14028.0000000000 0.0000000000
1435.0000000000 353.0000000000 2490.0000000000 335.0000000000
8114.0000000000 1995.0000000000 14053.0000000000 0.0000000000
1437.0000000000 306.0000000000 2497.0000000000 323.0000000000
8136.0000000000 1734.0000000000 14112.0000000000 0.0000000000
1444.0000000000 260.0000000000 2511.0000000000 329.0000000000
8136.0000000000 1467.0000000000 14131.0000000000 0.0000000000
1443.0000000000 213.0000000000 2512.0000000000 341.0000000000
8136.0000000000 1200.0000000000 14146.0000000000 0.0000000000
-13048.0000000000 599.0000000000 9872.0000000000 0.0000000000
1438.0000000000 165.0000000000 2507.0000000000 320.0000000000
8136.0000000000 934.0000000000 14158.0000000000 0.0000000000
1438.0000000000 118.0000000000 2508.0000000000 325.0000000000
8158.0000000000 669.0000000000 14206.0000000000 0.0000000000
1452.0000000000 71.0000000000 2535.0000000000 383.0000000000
8158.0000000000 401.0000000000 14212.0000000000 0.0000000000
1446.0000000000 24.0000000000 2525.0000000000 327.0000000000
8158.0000000000 134.0000000000 14215.0000000000 0.0000000000
1446.0000000000 -24.0000000000 2524.0000000000 343.0000000000
8158.0000000000 -134.0000000000 14215.0000000000 0.0000000000
-10380.0000000000 286.0000000000 7859.0000000000 450.0000000000
1444.0000000000 -71.0000000000 2520.0000000000 347.0000000000
8158.0000000000 -401.0000000000 14212.0000000000 0.0000000000
1458.0000000000 -120.0000000000 2543.0000000000 298.0000000000
8158.0000000000 -669.0000000000 14206.0000000000 0.0000000000
1455.0000000000 -167.0000000000 2536.0000000000 306.0000000000
8136.0000000000 -934.0000000000 14158.0000000000 0.0000000000
1445.0000000000 -213.0000000000 2516.0000000000 341.0000000000
8136.0000000000 -1200.0000000000 14146.0000000000 0.0000000000
1455.0000000000 -262.0000000000 2531.0000000000 303.0000000000
8136.0000000000 -1467.0000000000 14131.0000000000 0.0000000000
-13048.0000000000 359.0000000000 9878.0000000000 0.0000000000
1455.0000000000 -310.0000000000 2528.0000000000 300.0000000000
8136.0000000000 -1734.0000000000 14112.0000000000 0.0000000000
1451.0000000000 -357.0000000000 2517.0000000000 326.0000000000
8114.0000000000 -1995.0000000000 14053.0000000000 0.0000000000
1434.0000000000 -400.0000000000 2484.0000000000 340.0000000000
8114.0000000000 -2261.0000000000 14028.0000000000 0.0000000000
1431.0000000000 -446.0000000000 2473.0000000000 331.0000000000
8114.0000000000 -2527.0000000000 14000.0000000000 0.0000000000
1442.0000000000 -496.0000000000 2486.0000000000 344.0000000000
8114.0000000000 -2793.0000000000 13970.0000000000 0.0000000000
-10401.0000000000 95.0000000000 7877.0000000000 415.0000000000
1447.0000000000 -546.0000000000 2490.0000000000 307.0000000000
8092.0000000000 -3051.0000000000 13898.0000000000 0.0000000000
1428.0000000000 -585.0000000000 2451.0000000000 316.0000000000
8092.0000000000 -3316.0000000000 13861.0000000000 0.0000000000
1429.0000000000 -633.0000000000 2446.0000000000 350.0000000000
8070.0000000000 -3572.0000000000 13784.0000000000 0.0000000000
1424.0000000000 -677.0000000000 2428.0000000000 355.0000000000
8048.0000000000 -3826.0000000000 13704.0000000000 0.0000000000
1439.0000000000 -731.0000000000 2447.0000000000 305.0000000000
8048.0000000000 -4090.0000000000 13658.0000000000 0.0000000000
-13048.0000000000 120.0000000000 9881.0000000000 0.0000000000
1463.0000000000 720.0000000000 2392.0000000000 349.0000000000
8289.0000000000 4079.0000000000 13526.0000000000 0.0000000000
1482.0000000000 682.0000000000 2431.0000000000 311.0000000000
8289.0000000000 3816.0000000000 13572.0000000000 0.0000000000
1477.0000000000 633.0000000000 2431.0000000000 356.0000000000
8312.0000000000 3562.0000000000 13652.0000000000 0.0000000000
1466.0000000000 582.0000000000 2419.0000000000 340.0000000000
8312.0000000000 3298.0000000000 13691.0000000000 0.0000000000
1480.0000000000 540.0000000000 2449.0000000000 354.0000000000
8334.0000000000 3043.0000000000 13765.0000000000 0.0000000000
-2330.0000000000 -21.0000000000 1769.0000000000 403.0000000000
1479.0000000000 493.0000000000 2453.0000000000 355.0000000000
8334.0000000000 2778.0000000000 13799.0000000000 0.0000000000
1480.0000000000 446.0000000000 2460.0000000000 375.0000000000
8357.0000000000 2520.0000000000 13867.0000000000 0.0000000000
1480.0000000000 399.0000000000 2464.0000000000 331.0000000000
8357.0000000000 2255.0000000000 13895.0000000000 0.0000000000
1477.0000000000 352.0000000000 2464.0000000000 335.0000000000
8357.0000000000 1990.0000000000 13919.0000000000 0.0000000000
1488.0000000000 307.0000000000 2486.0000000000 351.0000000000
8380.0000000000 1729.0000000000 13979.0000000000 0.0000000000
-13048.0000000000 -120.0000000000 9881.0000000000 0.0000000000
-11294.0000000000 -2579.0000000000 6016.0000000000 350.0000000000
1480.0000000000 258.0000000000 2476.0000000000 332.0000000000
8380.0000000000 1463.0000000000 13997.0000000000 0.0000000000
1477.0000000000 211.0000000000 2474.0000000000 329.0000000000
8380.0000000000 1197.0000000000 14013.0000000000 0.0000000000
1496.0000000000 166.0000000000 2507.0000000000 302.0000000000
8380.0000000000 931.0000000000 14025.0000000000 0.0000000000
1483.0000000000 118.0000000000 2487.0000000000 317.0000000000
8380.0000000000 665.0000000000 14034.0000000000 0.0000000000
1485.0000000000 71.0000000000 2492.0000000000 322.0000000000
8380.0000000000 399.0000000000 14040.0000000000 0.0000000000
-2329.0000000000 -64.0000000000 1768.0000000000 413.0000000000
1481.0000000000 24.0000000000 2487.0000000000 349.0000000000
8380.0000000000 133.0000000000 14044.0000000000 0.0000000000
1484.0000000000 -24.0000000000 2492.0000000000 345.0000000000
8380.0000000000 -133.0000000000 14044.0000000000 0.0000000000
1485.0000000000 -71.0000000000 2493.0000000000 363.0000000000
8380.0000000000 -399.0000000000 14040.0000000000 0.0000000000
1482.0000000000 -118.0000000000 2487.0000000000 353.0000000000
8380.0000000000 -665.0000000000 14034.0000000000 0.0000000000
1480.0000000000 -164.0000000000 2482.0000000000 359.0000000000
8380.0000000000 -931.0000000000 14025.0000000000 0.0000000000
-13048.0000000000 -359.0000000000 9878.0000000000 0.0000000000
1489.0000000000 -213.0000000000 2495.0000000000 358.0000000000
8380.0000000000 -1197.0000000000 14013.0000000000 0.0000000000
1478.0000000000 -258.0000000000 2472.0000000000 321.0000000000
8380.0000000000 -1463.0000000000 13997.0000000000 0.0000000000
6675.0000000000 -1377.0000000000 11136.0000000000 410.0000000000
8380.0000000000 -1729.0000000000 13979.0000000000 0.0000000000
1478.0000000000 -352.0000000000 2465.0000000000 340.0000000000
8357.0000000000 -1990.0000000000 13919.0000000000 0.0000000000
1495.0000000000 -403.0000000000 2489.0000000000 316.0000000000
8357.0000000000 -2255.0000000000 13895.0000000000 0.0000000000
-2332.0000000000 -107.0000000000 1768.0000000000 423.0000000000
1494.0000000000 -451.0000000000 2483.0000000000 308.0000000000
8357.0000000000 -2520.0000000000 13867.0000000000 0.0000000000
1473.0000000000 -491.0000000000 2443.0000000000 337.0000000000
8334.0000000000 -2778.0000000000 13799.0000000000 0.0000000000
1491.0000000000 -544.0000000000 2466.0000000000 319.0000000000
8334.0000000000 -3043.0000000000 13765.0000000000 0.0000000000
1486.0000000000 -590.0000000000 2453.0000000000 320.0000000000
8312.0000000000 -3298.0000000000 13691.0000000000 0.0000000000
1485.0000000000 -637.0000000000 2444.0000000000 298.0000000000
8312.0000000000 -3562.0000000000 13652.0000000000 0.0000000000
-13127.0000000000 -602.0000000000 9932.0000000000 0.0000000000
1482.0000000000 -682.0000000000 2431.0000000000 311.0000000000
8289.0000000000 -3816.0000000000 13572.0000000000 0.0000000000
1467.0000000000 -722.0000000000 2398.0000000000 352.0000000000
8289.0000000000 -4079.0000000000 13526.0000000000 0.0000000000
1518.0000000000 724.0000000000 2388.0000000000 262.0000000000
8529.0000000000 4068.0000000000 13392.0000000000 0.0000000000
1524.0000000000 680.0000000000 2405.0000000000 265.0000000000
8529.0000000000 3805.0000000000 13437.0000000000 0.0000000000
1529.0000000000 635.0000000000 2421.0000000000 289.0000000000
8552.0000000000 3552.0000000000 13517.0000000000 0.0000000000
-2324.0000000000 -149.0000000000 1761.0000000000 358.0000000000
1529.0000000000 588.0000000000 2428.0000000000 278.0000000000
8552.0000000000 3289.0000000000 13556.0000000000 0.0000000000
1529.0000000000 541.0000000000 2435.0000000000 278.0000000000
8576.0000000000 3034.0000000000 13630.0000000000 0.0000000000
1513.0000000000 489.0000000000 2415.0000000000 299.0000000000
8576.0000000000 2771.0000000000 13664.0000000000 0.0000000000
1526.0000000000 446.0000000000 2441.0000000000 282.0000000000
8576.0000000000 2507.0000000000 13694.0000000000 0.0000000000
1532.0000000000 401.0000000000 2455.0000000000 288.0000000000
8599.0000000000 2249.0000000000 13759.0000000000 0.0000000000
-13281.0000000000 -853.0000000000 10039.0000000000 0.0000000000
1538.0000000000 355.0000000000 2469.0000000000 278.0000000000
8599.0000000000 1984.0000000000 13784.0000000000 0.0000000000
1534.0000000000 307.0000000000 2467.0000000000 253.0000000000
8622.0000000000 1724.0000000000 13843.0000000000 0.0000000000
1542.0000000000 261.0000000000 2483.0000000000 303.0000000000
8622.0000000000 1459.0000000000 13861.0000000000 0.0000000000
1535.0000000000 213.0000000000 2475.0000000000 285.0000000000
8622.0000000000 1194.0000000000 13877.0000000000 0.0000000000
1542.0000000000 166.0000000000 2488.0000000000 299.0000000000
8622.0000000000 929.0000000000 13889.0000000000 0.0000000000
-10376.0000000000 -857.0000000000 7836.0000000000 439.0000000000
1538.0000000000 118.0000000000 2483.0000000000 274.0000000000
8622.0000000000 663.0000000000 13898.0000000000 0.0000000000
1538.0000000000 71.0000000000 2484.0000000000 286.0000000000
8622.0000000000 398.0000000000 13904.0000000000 0.0000000000
1539.0000000000 24.0000000000 2486.0000000000 268.0000000000
8622.0000000000 133.0000000000 13907.0000000000 0.0000000000
1542.0000000000 -24.0000000000 2491.0000000000 303.0000000000
8622.0000000000 -133.0000000000 13907.0000000000 0.0000000000
1535.0000000000 -71.0000000000 2479.0000000000 260.0000000000
8622.0000000000 -398.0000000000 13904.0000000000 0.0000000000
-13048.0000000000 -1077.0000000000 9853.0000000000 0.0000000000
1542.0000000000 -119.0000000000 2490.0000000000 303.0000000000
8622.0000000000 -663.0000000000 13898.0000000000 0.0000000000
1540.0000000000 -166.0000000000 2485.0000000000 281.0000000000
8622.0000000000 -929.0000000000 13889.0000000000 0.0000000000
1536.0000000000 -213.0000000000 2476.0000000000 257.0000000000
8622.0000000000 -1194.0000000000 13877.0000000000 0.0000000000
1539.0000000000 -260.0000000000 2478.0000000000 273.0000000000
8622.0000000000 -1459.0000000000 13861.0000000000 0.0000000000
6856.0000000000 -1371.0000000000 11008.0000000000 351.0000000000
8622.0000000000 -1724.0000000000 13843.0000000000 0.0000000000
-10383.0000000000 -1048.0000000000 7830.0000000000 447.0000000000
1534.0000000000 -354.0000000000 2463.0000000000 285.0000000000
8599.0000000000 -1984.0000000000 13784.0000000000 0.0000000000
1532.0000000000 -401.0000000000 2455.0000000000 272.0000000000
8599.0000000000 -2249.0000000000 13759.0000000000 0.0000000000
1531.0000000000 -448.0000000000 2449.0000000000 288.0000000000
8576.0000000000 -2507.0000000000 13694.0000000000 0.0000000000
1526.0000000000 -493.0000000000 2435.0000000000 273.0000000000
8576.0000000000 -2771.0000000000 13664.0000000000 0.0000000000
1529.0000000000 -541.0000000000 2435.0000000000 281.0000000000
8576.0000000000 -3034.0000000000 13630.0000000000 0.0000000000
-13048.0000000000 -1317.0000000000 9838.0000000000 0.0000000000
-14281.0000000000 -3261.0000000000 7606.0000000000 0.0000000000
1525.0000000000 -586.0000000000 2421.0000000000 275.0000000000
8552.0000000000 -3289.0000000000 13556.0000000000 0.0000000000
1525.0000000000 -633.0000000000 2414.0000000000 266.0000000000
8552.0000000000 -3552.0000000000 13517.0000000000 0.0000000000
1516.0000000000 -677.0000000000 2393.0000000000 255.0000000000
8529.0000000000 -3805.0000000000 13437.0000000000 0.0000000000
1519.0000000000 -724.0000000000 2389.0000000000 257.0000000000
8529.0000000000 -4068.0000000000 13392.0000000000 0.0000000000
1564.0000000000 723.0000000000 2368.0000000000 426.0000000000
8743.0000000000 4045.0000000000 13218.0000000000 0.0000000000
-2307.0000000000 -275.0000000000 1741.0000000000 382.0000000000
1557.0000000000 674.0000000000 2366.0000000000 405.0000000000
8767.0000000000 3795.0000000000 13300.0000000000 0.0000000000
1556.0000000000 627.0000000000 2371.0000000000 362.0000000000
8791.0000000000 3543.0000000000 13379.0000000000 0.0000000000
1559.0000000000 582.0000000000 2384.0000000000 351.0000000000
8791.0000000000 3280.0000000000 13419.0000000000 0.0000000000
1559.0000000000 535.0000000000 2390.0000000000 368.0000000000
8791.0000000000 3018.0000000000 13455.0000000000 0.0000000000
1555.0000000000 487.0000000000 2390.0000000000 379.0000000000
8815.0000000000 2763.0000000000 13526.0000000000 0.0000000000
-13008.0000000000 -1551.0000000000 9792.0000000000 0.0000000000
1568.0000000000 445.0000000000 2415.0000000000 348.0000000000
8815.0000000000 2500.0000000000 13556.0000000000 0.0000000000
1577.0000000000 400.0000000000 2433.0000000000 390.0000000000
8840.0000000000 2243.0000000000 13621.0000000000 0.0000000000
1564.0000000000 350.0000000000 2419.0000000000 388.0000000000
8840.0000000000 1979.0000000000 13645.0000000000 0.0000000000
1568.0000000000 304.0000000000 2429.0000000000 390.0000000000
8840.0000000000 1715.0000000000 13667.0000000000 0.0000000000
1560.0000000000 256.0000000000 2420.0000000000 363.0000000000
8840.0000000000 1451.0000000000 13685.0000000000 0.0000000000
-2316.0000000000 -319.0000000000 1744.0000000000 376.0000000000
1568.0000000000 211.0000000000 2434.0000000000 344.0000000000
8840.0000000000 1187.0000000000 13700.0000000000 0.0000000000
1581.0000000000 165.0000000000 2457.0000000000 357.0000000000
8864.0000000000 926.0000000000 13750.0000000000 0.0000000000
1573.0000000000 117.0000000000 2446.0000000000 356.0000000000
8864.0000000000 661.0000000000 13759.0000000000 0.0000000000
1581.0000000000 71.0000000000 2460.0000000000 397.0000000000
8864.0000000000 397.0000000000 13765.0000000000 0.0000000000
1572.0000000000 23.0000000000 2445.0000000000 382.0000000000
8864.0000000000 132.0000000000 13769.0000000000 0.0000000000
-13008.0000000000 -1790.0000000000 9773.0000000000 0.0000000000
1564.0000000000 -23.0000000000 2434.0000000000 348.0000000000
8864.0000000000 -132.0000000000 13769.0000000000 0.0000000000
1580.0000000000 -71.0000000000 2457.0000000000 370.0000000000
8864.0000000000 -397.0000000000 13765.0000000000 0.0000000000
1569.0000000000 -117.0000000000 2440.0000000000 351.0000000000
8864.0000000000 -661.0000000000 13759.0000000000 0.0000000000
1568.0000000000 -164.0000000000 2437.0000000000 349.0000000000
8864.0000000000 -926.0000000000 13750.0000000000 0.0000000000
1569.0000000000 -211.0000000000 2437.0000000000 379.0000000000
8840.0000000000 -1187.0000000000 13700.0000000000 0.0000000000
-2322.0000000000 -362.0000000000 1744.0000000000 399.0000000000
1581.0000000000 -260.0000000000 2451.0000000000 327.0000000000
8840.0000000000 -1451.0000000000 13685.0000000000 0.0000000000
7041.0000000000 -1366.0000000000 10887.0000000000 409.0000000000
8840.0000000000 -1715.0000000000 13667.0000000000 0.0000000000
1565.0000000000 -350.0000000000 2419.0000000000 340.0000000000
8840.0000000000 -1979.0000000000 13645.0000000000 0.0000000000
1579.0000000000 -401.0000000000 2437.0000000000 397.0000000000
8840.0000000000 -2243.0000000000 13621.0000000000 0.0000000000
1566.0000000000 -444.0000000000 2412.0000000000 345.0000000000
8815.0000000000 -2500.0000000000 13556.0000000000 0.0000000000
-13008.0000000000 -2029.0000000000 9750.0000000000 0.0000000000
1559.0000000000 -489.0000000000 2396.0000000000 361.0000000000
8815.0000000000 -2763.0000000000 13526.0000000000 0.0000000000
1552.0000000000 -533.0000000000 2380.0000000000 360.0000000000
8791.0000000000 -3018.0000000000 13455.0000000000 0.0000000000
1557.0000000000 -581.0000000000 2380.0000000000 336.0000000000
8791.0000000000 -3280.0000000000 13419.0000000000 0.0000000000
1554.0000000000 -626.0000000000 2370.0000000000 357.0000000000
8791.0000000000 -3543.0000000000 13379.0000000000 0.0000000000
1554.0000000000 -673.0000000000 2361.0000000000 361.0000000000
8767.0000000000 -3795.0000000000 13300.0000000000 0.0000000000
-2304.0000000000 -402.0000000000 1727.0000000000 370.0000000000
1548.0000000000 -716.0000000000 2345.0000000000 346.0000000000
8743.0000000000 -4045.0000000000 13218.0000000000 0.0000000000
1591.0000000000 715.0000000000 2322.0000000000 361.0000000000
8979.0000000000 4034.0000000000 13079.0000000000 0.0000000000
1593.0000000000 669.0000000000 2332.0000000000 337.0000000000
9004.0000000000 3784.0000000000 13161.0000000000 0.0000000000
1593.0000000000 623.0000000000 2340.0000000000 316.0000000000
9004.0000000000 3523.0000000000 13203.0000000000 0.0000000000
1603.0000000000 581.0000000000 2362.0000000000 362.0000000000
9029.0000000000 3271.0000000000 13279.0000000000 0.0000000000
-13187.0000000000 -2299.0000000000 9859.0000000000 0.0000000000
1609.0000000000 536.0000000000 2377.0000000000 360.0000000000
9029.0000000000 3010.0000000000 13315.0000000000 0.0000000000
1606.0000000000 489.0000000000 2379.0000000000 353.0000000000
9054.0000000000 2755.0000000000 13385.0000000000 0.0000000000
7217.0000000000 1987.0000000000 10695.0000000000 438.0000000000
9054.0000000000 2493.0000000000 13416.0000000000 0.0000000000
7209.0000000000 1776.0000000000 10706.0000000000 385.0000000000
9054.0000000000 2231.0000000000 13443.0000000000 0.0000000000
1610.0000000000 350.0000000000 2399.0000000000 349.0000000000
9079.0000000000 1974.0000000000 13505.0000000000 0.0000000000
-2304.0000000000 -444.0000000000 1721.0000000000 397.0000000000
1605.0000000000 302.0000000000 2395.0000000000 358.0000000000
9079.0000000000 1710.0000000000 13526.0000000000 0.0000000000
1610.0000000000 257.0000000000 2406.0000000000 359.0000000000
9079.0000000000 1447.0000000000 13544.0000000000 0.0000000000
1621.0000000000 211.0000000000 2426.0000000000 298.0000000000
9079.0000000000 1184.0000000000 13560.0000000000 0.0000000000
1609.0000000000 163.0000000000 2409.0000000000 355.0000000000
9079.0000000000 921.0000000000 13572.0000000000 0.0000000000
1611.0000000000 117.0000000000 2414.0000000000 335.0000000000
9103.0000000000 660.0000000000 13618.0000000000 0.0000000000
-13141.0000000000 -2532.0000000000 9796.0000000000 0.0000000000
-11259.0000000000 -2748.0000000000 5967.0000000000 339.0000000000
1628.0000000000 71.0000000000 2441.0000000000 324.0000000000
9103.0000000000 396.0000000000 13624.0000000000 0.0000000000
1609.0000000000 23.0000000000 2412.0000000000 336.0000000000
9103.0000000000 132.0000000000 13627.0000000000 0.0000000000
1626.0000000000 -24.0000000000 2439.0000000000 292.0000000000
9103.0000000000 -132.0000000000 13627.0000000000 0.0000000000
1611.0000000000 -70.0000000000 2416.0000000000 328.0000000000
9103.0000000000 -396.0000000000 13624.0000000000 0.0000000000
1608.0000000000 -117.0000000000 2410.0000000000 329.0000000000
9103.0000000000 -660.0000000000 13618.0000000000 0.0000000000
-2319.0000000000 -489.0000000000 1727.0000000000 415.0000000000
1608.0000000000 -163.0000000000 2408.0000000000 333.0000000000
9079.0000000000 -921.0000000000 13572.0000000000 0.0000000000
1615.0000000000 -211.0000000000 2416.0000000000 368.0000000000
9079.0000000000 -1184.0000000000 13560.0000000000 0.0000000000
1607.0000000000 -256.0000000000 2401.0000000000 319.0000000000
9079.0000000000 -1447.0000000000 13544.0000000000 0.0000000000
7232.0000000000 -1363.0000000000 10776.0000000000 388.0000000000
9079.0000000000 -1710.0000000000 13526.0000000000 0.0000000000
1601.0000000000 -348.0000000000 2385.0000000000 320.0000000000
9079.0000000000 -1974.0000000000 13505.0000000000 0.0000000000
-13165.0000000000 -2778.0000000000 9783.0000000000 0.0000000000
1599.0000000000 -394.0000000000 2378.0000000000 332.0000000000
9054.0000000000 -2231.0000000000 13443.0000000000 0.0000000000
1598.0000000000 -440.0000000000 2371.0000000000 337.0000000000
9054.0000000000 -2493.0000000000 13416.0000000000 0.0000000000
1597.0000000000 -486.0000000000 2365.0000000000 350.0000000000
9054.0000000000 -2755.0000000000 13385.0000000000 0.0000000000
1615.0000000000 -538.0000000000 2385.0000000000 316.0000000000
9029.0000000000 -3010.0000000000 13315.0000000000 0.0000000000
1615.0000000000 -585.0000000000 2379.0000000000 302.0000000000
9029.0000000000 -3271.0000000000 13279.0000000000 0.0000000000
-2296.0000000000 -527.0000000000 1704.0000000000 341.0000000000
1610.0000000000 -630.0000000000 2365.0000000000 309.0000000000
9004.0000000000 -3523.0000000000 13203.0000000000 0.0000000000
1597.0000000000 -671.0000000000 2338.0000000000 332.0000000000
9004.0000000000 -3784.0000000000 13161.0000000000 0.0000000000
1582.0000000000 -711.0000000000 2308.0000000000 341.0000000000
8979.0000000000 -4034.0000000000 13079.0000000000 0.0000000000
1636.0000000000 714.0000000000 2301.0000000000 344.0000000000
9214.0000000000 4023.0000000000 12937.0000000000 0.0000000000
1638.0000000000 669.0000000000 2311.0000000000 345.0000000000
9214.0000000000 3763.0000000000 12982.0000000000 0.0000000000
-12930.0000000000 -2966.0000000000 9575.0000000000 0.0000000000
1636.0000000000 622.0000000000 2317.0000000000 357.0000000000
9240.0000000000 3514.0000000000 13061.0000000000 0.0000000000
7360.0000000000 2591.0000000000 10436.0000000000 430.0000000000
9240.0000000000 3253.0000000000 13100.0000000000 0.0000000000
1638.0000000000 531.0000000000 2333.0000000000 331.0000000000
9265.0000000000 3001.0000000000 13173.0000000000 0.0000000000
7386.0000000000 2184.0000000000 10528.0000000000 413.0000000000
9265.0000000000 2740.0000000000 13206.0000000000 0.0000000000
7377.0000000000 1974.0000000000 10540.0000000000 392.0000000000
9265.0000000000 2479.0000000000 13236.0000000000 0.0000000000
-2312.0000000000 -573.0000000000 1709.0000000000 406.0000000000
7403.0000000000 1772.0000000000 10598.0000000000 403.0000000000
9291.0000000000 2225.0000000000 13300.0000000000 0.0000000000
1639.0000000000 346.0000000000 2355.0000000000 338.0000000000
9291.0000000000 1963.0000000000 13324.0000000000 0.0000000000
1650.0000000000 302.0000000000 2374.0000000000 365.0000000000
9316.0000000000 1706.0000000000 13382.0000000000 0.0000000000
1646.0000000000 255.0000000000 2372.0000000000 362.0000000000
9316.0000000000 1443.0000000000 13400.0000000000 0.0000000000
7419.0000000000 940.0000000000 10685.0000000000 389.0000000000
9316.0000000000 1181.0000000000 13416.0000000000 0.0000000000
-13106.0000000000 -3247.0000000000 9669.0000000000 0.0000000000
1647.0000000000 162.0000000000 2378.0000000000 331.0000000000
9316.0000000000 918.0000000000 13428.0000000000 0.0000000000
1647.0000000000 116.0000000000 2380.0000000000 336.0000000000
9316.0000000000 656.0000000000 13437.0000000000 0.0000000000
1650.0000000000 70.0000000000 2385.0000000000 353.0000000000
9316.0000000000 394.0000000000 13443.0000000000 0.0000000000
1649.0000000000 23.0000000000 2384.0000000000 359.0000000000
9316.0000000000 131.0000000000 13446.0000000000 0.0000000000
1642.0000000000 -23.0000000000 2374.0000000000 362.0000000000
9316.0000000000 -131.0000000000 13446.0000000000 0.0000000000
-2304.0000000000 -613.0000000000 1697.0000000000 375.0000000000
1644.0000000000 -69.0000000000 2376.0000000000 348.0000000000
9316.0000000000 -394.0000000000 13443.0000000000 0.0000000000
1646.0000000000 -116.0000000000 2378.0000000000 347.0000000000
9316.0000000000 -656.0000000000 13437.0000000000 0.0000000000
1643.0000000000 -162.0000000000 2372.0000000000 328.0000000000
9316.0000000000 -918.0000000000 13428.0000000000 0.0000000000
1648.0000000000 -209.0000000000 2378.0000000000 351.0000000000
9316.0000000000 -1181.0000000000 13416.0000000000 0.0000000000
1642.0000000000 -254.0000000000 2365.0000000000 346.0000000000
9316.0000000000 -1443.0000000000 13400.0000000000 0.0000000000
-13007.0000000000 -3460.0000000000 9556.0000000000 0.0000000000
7415.0000000000 -1358.0000000000 10653.0000000000 407.0000000000
9316.0000000000 -1706.0000000000 13382.0000000000 0.0000000000
1646.0000000000 -348.0000000000 2365.0000000000 364.0000000000
9291.0000000000 -1963.0000000000 13324.0000000000 0.0000000000
1661.0000000000 -398.0000000000 2382.0000000000 306.0000000000
9291.0000000000 -2225.0000000000 13300.0000000000 0.0000000000
1657.0000000000 -443.0000000000 2371.0000000000 316.0000000000
9265.0000000000 -2479.0000000000 13236.0000000000 0.0000000000
1639.0000000000 -485.0000000000 2340.0000000000 338.0000000000
9265.0000000000 -2740.0000000000 13206.0000000000 0.0000000000
-2296.0000000000 -653.0000000000 1684.0000000000 376.0000000000
1657.0000000000 -537.0000000000 2360.0000000000 326.0000000000
9265.0000000000 -3001.0000000000 13173.0000000000 0.0000000000
1634.0000000000 -575.0000000000 2320.0000000000 353.0000000000
9240.0000000000 -3253.0000000000 13100.0000000000 0.0000000000
1638.0000000000 -623.0000000000 2320.0000000000 345.0000000000
9240.0000000000 -3514.0000000000 13061.0000000000 0.0000000000
1648.0000000000 -673.0000000000 2326.0000000000 305.0000000000
9214.0000000000 -3763.0000000000 12982.0000000000 0.0000000000
1648.0000000000 -719.0000000000 2318.0000000000 323.0000000000
9214.0000000000 -4023.0000000000 12937.0000000000 0.0000000000
-12993.0000000000 -3695.0000000000 9504.0000000000 0.0000000000
-14152.0000000000 -3454.0000000000 7498.0000000000 0.0000000000
1685.0000000000 715.0000000000 2285.0000000000 274.0000000000
9421.0000000000 4001.0000000000 12758.0000000000 0.0000000000
1689.0000000000 671.0000000000 2300.0000000000 286.0000000000
9447.0000000000 3753.0000000000 12838.0000000000 0.0000000000
1694.0000000000 627.0000000000 2314.0000000000 284.0000000000
9474.0000000000 3504.0000000000 12916.0000000000 0.0000000000
7537.0000000000 2581.0000000000 10308.0000000000 366.0000000000
9474.0000000000 3244.0000000000 12955.0000000000 0.0000000000
7537.0000000000 2375.0000000000 10337.0000000000 352.0000000000
9474.0000000000 2985.0000000000 12991.0000000000 0.0000000000
-2262.0000000000 655.0000000000 1716.0000000000 366.0000000000
7557.0000000000 2174.0000000000 10391.0000000000 354.0000000000
9500.0000000000 2733.0000000000 13061.0000000000 0.0000000000
7558.0000000000 1967.0000000000 10416.0000000000 365.0000000000
9500.0000000000 2473.0000000000 13091.0000000000 0.0000000000
1686.0000000000 393.0000000000 2332.0000000000 267.0000000000
9500.0000000000 2212.0000000000 13118.0000000000 0.0000000000
1692.0000000000 348.0000000000 2345.0000000000 262.0000000000
9526.0000000000 1957.0000000000 13178.0000000000 0.0000000000
1698.0000000000 302.0000000000 2357.0000000000 264.0000000000
9526.0000000000 1696.0000000000 13200.0000000000 0.0000000000
-12731.0000000000 3688.0000000000 9637.0000000000 0.0000000000
7580.0000000000 1142.0000000000 10518.0000000000 345.0000000000
9526.0000000000 1435.0000000000 13218.0000000000 0.0000000000
1704.0000000000 210.0000000000 2371.0000000000 296.0000000000
9526.0000000000 1174.0000000000 13233.0000000000 0.0000000000
1708.0000000000 164.0000000000 2379.0000000000 314.0000000000
9552.0000000000 916.0000000000 13282.0000000000 0.0000000000
7602.0000000000 521.0000000000 10578.0000000000 351.0000000000
9552.0000000000 654.0000000000 13291.0000000000 0.0000000000
1702.0000000000 70.0000000000 2373.0000000000 270.0000000000
9552.0000000000 393.0000000000 13297.0000000000 0.0000000000
-2268.0000000000 615.0000000000 1729.0000000000 358.0000000000
1708.0000000000 23.0000000000 2382.0000000000 286.0000000000
9552.0000000000 131.0000000000 13300.0000000000 0.0000000000
1704.0000000000 -23.0000000000 2377.0000000000 266.0000000000
9552.0000000000 -131.0000000000 13300.0000000000 0.0000000000
1708.0000000000 -70.0000000000 2382.0000000000 278.0000000000
9552.0000000000 -393.0000000000 13297.0000000000 0.0000000000
1702.0000000000 -117.0000000000 2372.0000000000 269.0000000000
9552.0000000000 -654.0000000000 13291.0000000000 0.0000000000
1707.0000000000 -164.0000000000 2378.0000000000 284.0000000000
9552.0000000000 -916.0000000000 13282.0000000000 0.0000000000
-12731.0000000000 3451.0000000000 9679.0000000000 0.0000000000
1695.0000000000 -209.0000000000 2358.0000000000 266.0000000000
9526.0000000000 -1174.0000000000 13233.0000000000 0.0000000000
1703.0000000000 -257.0000000000 2367.0000000000 282.0000000000
9526.0000000000 -1435.0000000000 13218.0000000000 0.0000000000
7576.0000000000 -1349.0000000000 10499.0000000000 347.0000000000
9526.0000000000 -1696.0000000000 13200.0000000000 0.0000000000
1697.0000000000 -349.0000000000 2351.0000000000 281.0000000000
9526.0000000000 -1957.0000000000 13178.0000000000 0.0000000000
1688.0000000000 -393.0000000000 2336.0000000000 272.0000000000
9500.0000000000 -2212.0000000000 13118.0000000000 0.0000000000
-2270.0000000000 573.0000000000 1737.0000000000 344.0000000000
1695.0000000000 -441.0000000000 2340.0000000000 264.0000000000
9500.0000000000 -2473.0000000000 13091.0000000000 0.0000000000
1693.0000000000 -487.0000000000 2332.0000000000 267.0000000000
9500.0000000000 -2733.0000000000 13061.0000000000 0.0000000000
1681.0000000000 -530.0000000000 2310.0000000000 251.0000000000
9474.0000000000 -2985.0000000000 12991.0000000000 0.0000000000
1686.0000000000 -577.0000000000 2310.0000000000 263.0000000000
9474.0000000000 -3244.0000000000 12955.0000000000 0.0000000000
1679.0000000000 -621.0000000000 2293.0000000000 248.0000000000
9474.0000000000 -3504.0000000000 12916.0000000000 0.0000000000
-12770.0000000000 3222.0000000000 9747.0000000000 0.0000000000
1676.0000000000 -666.0000000000 2282.0000000000 254.0000000000
9447.0000000000 -3753.0000000000 12838.0000000000 0.0000000000
1681.0000000000 -714.0000000000 2280.0000000000 260.0000000000
9421.0000000000 -4001.0000000000 12758.0000000000 0.0000000000
1718.0000000000 710.0000000000 2249.0000000000 392.0000000000
9652.0000000000 3990.0000000000 12611.0000000000 0.0000000000
1724.0000000000 667.0000000000 2265.0000000000 387.0000000000
9679.0000000000 3743.0000000000 12691.0000000000 0.0000000000
1720.0000000000 619.0000000000 2266.0000000000 380.0000000000
9679.0000000000 3485.0000000000 12733.0000000000 0.0000000000
-2277.0000000000 532.0000000000 1749.0000000000 370.0000000000
7725.0000000000 2575.0000000000 10195.0000000000 389.0000000000
9706.0000000000 3235.0000000000 12808.0000000000 0.0000000000
7731.0000000000 2371.0000000000 10231.0000000000 426.0000000000
9706.0000000000 2977.0000000000 12844.0000000000 0.0000000000
7756.0000000000 2172.0000000000 10291.0000000000 418.0000000000
9733.0000000000 2725.0000000000 12913.0000000000 0.0000000000
1726.0000000000 437.0000000000 2299.0000000000 334.0000000000
9733.0000000000 2466.0000000000 12943.0000000000 0.0000000000
1735.0000000000 393.0000000000 2316.0000000000 387.0000000000
9733.0000000000 2206.0000000000 12970.0000000000 0.0000000000
-12770.0000000000 2984.0000000000 9784.0000000000 0.0000000000
1734.0000000000 347.0000000000 2319.0000000000 391.0000000000
9733.0000000000 1947.0000000000 12994.0000000000 0.0000000000
1736.0000000000 301.0000000000 2325.0000000000 392.0000000000
9760.0000000000 1692.0000000000 13052.0000000000 0.0000000000
7780.0000000000 1141.0000000000 10420.0000000000 428.0000000000
9760.0000000000 1431.0000000000 13070.0000000000 0.0000000000
1723.0000000000 207.0000000000 2314.0000000000 369.0000000000
